ply
format ascii 1.0
element vertex 746
property float x
property float y
property float z
property float data
end_header
-78.9473648071289062 -80 -49.4951553344726562 2.53672385215759277
-78.9473648071289062 -80 -47.2581825256347656 2.53672385215759277
-78.9473648071289062 -80 -43.3118019104003906 2.53672385215759277
-78.9473648071289062 -80 -37.79876708984375 2.53672385215759277
-78.9473648071289062 -80 -30.9184894561767578 2.53672385215759277
-78.9473648071289062 -80 -22.9198398590087891 2.53672385215759277
-78.9473648071289062 -80 -14.0921430587768555 2.53672385215759277
-78.9473648071289062 -80 -4.75470924377441406 2.53672385215759277
-78.9473648071289062 -80 4.75470924377441406 2.53672385215759277
-78.9473648071289062 -80 14.0921430587768555 2.53672385215759277
-78.9473648071289062 -80 22.9198398590087891 2.53672385215759277
-78.9473648071289062 -80 30.9184894561767578 2.53672385215759277
-78.9473648071289062 -80 37.79876708984375 2.53672385215759277
-78.9473648071289062 -80 43.3118019104003906 2.53672385215759277
-78.9473648071289062 -80 47.2581825256347656 2.53672385215759277
-78.9473648071289062 -80 49.4951553344726562 2.53672385215759277
-78.9473648071289062 -80 49.9418067932128906 2.53672385215759277
-78.9473648071289062 -80 48.5819816589355469 2.53672385215759277
-78.9473648071289062 -80 45.4648704528808594 2.53672385215759277
-68.421051025390625 -80 -45.4648704528808594 4.09347915649414062
-68.421051025390625 -80 -48.5819816589355469 4.09347915649414062
-68.421051025390625 -80 -49.9418067932128906 4.09347915649414062
-68.421051025390625 -80 -49.4951553344726562 4.09347915649414062
-68.421051025390625 -80 -47.2581825256347656 4.09347915649414062
-68.421051025390625 -80 -43.3118019104003906 4.09347915649414062
-68.421051025390625 -80 -37.79876708984375 4.09347915649414062
-68.421051025390625 -80 -30.9184894561767578 4.09347915649414062
-68.421051025390625 -80 -22.9198398590087891 4.09347915649414062
-68.421051025390625 -80 -14.0921430587768555 4.09347915649414062
-68.421051025390625 -80 -4.75470924377441406 4.09347915649414062
-68.421051025390625 -80 4.75470924377441406 4.09347915649414062
-68.421051025390625 -80 14.0921430587768555 4.09347915649414062
-68.421051025390625 -80 22.9198398590087891 4.09347915649414062
-68.421051025390625 -80 30.9184894561767578 4.09347915649414062
-68.421051025390625 -80 37.79876708984375 4.09347915649414062
-68.421051025390625 -80 43.3118019104003906 4.09347915649414062
-68.421051025390625 -80 47.2581825256347656 4.09347915649414062
-68.421051025390625 -80 49.4951553344726562 4.09347915649414062
-68.421051025390625 -80 49.9418067932128906 4.09347915649414062
-68.421051025390625 -80 48.5819816589355469 4.09347915649414062
-68.421051025390625 -80 45.4648704528808594 4.09347915649414062
-57.8947372436523438 -80 -45.4648704528808594 -6.23907136917114258
-57.8947372436523438 -80 -48.5819816589355469 -6.23907136917114258
-57.8947372436523438 -80 -49.9418067932128906 -6.23907136917114258
-57.8947372436523438 -80 -49.4951553344726562 -6.23907136917114258
-57.8947372436523438 -80 -47.2581825256347656 -6.23907136917114258
-57.8947372436523438 -80 -43.3118019104003906 -6.23907136917114258
-57.8947372436523438 -80 -37.79876708984375 -6.23907136917114258
-57.8947372436523438 -80 -30.9184894561767578 -6.23907136917114258
-57.8947372436523438 -80 -22.9198398590087891 -6.23907136917114258
-57.8947372436523438 -80 -14.0921430587768555 -6.23907136917114258
-57.8947372436523438 -80 -4.75470924377441406 -6.23907136917114258
-57.8947372436523438 -80 4.75470924377441406 -6.23907136917114258
-57.8947372436523438 -80 14.0921430587768555 -6.23907136917114258
-57.8947372436523438 -80 22.9198398590087891 -6.23907136917114258
-57.8947372436523438 -80 30.9184894561767578 -6.23907136917114258
-57.8947372436523438 -80 37.79876708984375 -6.23907136917114258
-57.8947372436523438 -80 43.3118019104003906 -6.23907136917114258
-57.8947372436523438 -80 47.2581825256347656 -6.23907136917114258
-57.8947372436523438 -80 49.4951553344726562 -6.23907136917114258
-57.8947372436523438 -80 49.9418067932128906 -6.23907136917114258
-57.8947372436523438 -80 48.5819816589355469 -6.23907136917114258
-57.8947372436523438 -80 45.4648704528808594 -6.23907136917114258
-47.3684196472167969 -80 -45.4648704528808594 1.54944992065429688
-47.3684196472167969 -80 -48.5819816589355469 1.54944992065429688
-47.3684196472167969 -80 -49.9418067932128906 1.54944992065429688
-47.3684196472167969 -80 -49.4951553344726562 1.54944992065429688
-47.3684196472167969 -80 -47.2581825256347656 1.54944992065429688
-47.3684196472167969 -80 -43.3118019104003906 1.54944992065429688
-47.3684196472167969 -80 -37.79876708984375 1.54944992065429688
-47.3684196472167969 -80 -30.9184894561767578 1.54944992065429688
-47.3684196472167969 -80 -22.9198398590087891 1.54944992065429688
-47.3684196472167969 -80 -14.0921430587768555 1.54944992065429688
-47.3684196472167969 -80 -4.75470924377441406 1.54944992065429688
-47.3684196472167969 -80 4.75470924377441406 1.54944992065429688
-47.3684196472167969 -80 14.0921430587768555 1.54944992065429688
-47.3684196472167969 -80 22.9198398590087891 1.54944992065429688
-47.3684196472167969 -80 30.9184894561767578 1.54944992065429688
-47.3684196472167969 -80 37.79876708984375 1.54944992065429688
-47.3684196472167969 -80 43.3118019104003906 1.54944992065429688
-47.3684196472167969 -80 47.2581825256347656 1.54944992065429688
-47.3684196472167969 -80 49.4951553344726562 1.54944992065429688
-47.3684196472167969 -80 49.9418067932128906 1.54944992065429688
-47.3684196472167969 -80 48.5819816589355469 1.54944992065429688
-47.3684196472167969 -80 45.4648704528808594 1.54944992065429688
-36.8421058654785156 -80 -45.4648704528808594 4.83767127990722656
-36.8421058654785156 -80 -48.5819816589355469 4.83767127990722656
-36.8421058654785156 -80 -49.9418067932128906 4.83767127990722656
-36.8421058654785156 -80 -49.4951553344726562 4.83767127990722656
-36.8421058654785156 -80 -47.2581825256347656 4.83767127990722656
-36.8421058654785156 -80 -43.3118019104003906 4.83767127990722656
-36.8421058654785156 -80 -37.79876708984375 4.83767127990722656
-36.8421058654785156 -80 -30.9184894561767578 4.83767127990722656
-36.8421058654785156 -80 -22.9198398590087891 4.83767127990722656
-36.8421058654785156 -80 -14.0921430587768555 4.83767127990722656
-36.8421058654785156 -80 -4.75470924377441406 4.83767127990722656
-36.8421058654785156 -80 4.75470924377441406 4.83767127990722656
-36.8421058654785156 -80 14.0921430587768555 4.83767127990722656
-36.8421058654785156 -80 22.9198398590087891 4.83767127990722656
-36.8421058654785156 -80 30.9184894561767578 4.83767127990722656
-36.8421058654785156 -80 37.79876708984375 4.83767127990722656
-36.8421058654785156 -80 43.3118019104003906 4.83767127990722656
-36.8421058654785156 -80 47.2581825256347656 4.83767127990722656
-36.8421058654785156 -80 49.4951553344726562 4.83767127990722656
-36.8421058654785156 -80 49.9418067932128906 4.83767127990722656
-36.8421058654785156 -80 48.5819816589355469 4.83767127990722656
-36.8421058654785156 -80 45.4648704528808594 4.83767127990722656
-26.3157901763916016 -80 -45.4648704528808594 -5.92488241195678711
-26.3157901763916016 -80 -48.5819816589355469 -5.92488241195678711
-26.3157901763916016 -80 -49.9418067932128906 -5.92488241195678711
-26.3157901763916016 -80 -49.4951553344726562 -5.92488241195678711
-26.3157901763916016 -80 -47.2581825256347656 -5.92488241195678711
-26.3157901763916016 -80 -43.3118019104003906 -5.92488241195678711
-26.3157901763916016 -80 -37.79876708984375 -5.92488241195678711
-26.3157901763916016 -80 -30.9184894561767578 -5.92488241195678711
-26.3157901763916016 -80 -22.9198398590087891 -5.92488241195678711
-26.3157901763916016 -80 -14.0921430587768555 -5.92488241195678711
-26.3157901763916016 -80 -4.75470924377441406 -5.92488241195678711
-26.3157901763916016 -80 4.75470924377441406 -5.92488241195678711
-26.3157901763916016 -80 14.0921430587768555 -5.92488241195678711
-26.3157901763916016 -80 22.9198398590087891 -5.92488241195678711
-26.3157901763916016 -80 30.9184894561767578 -5.92488241195678711
-26.3157901763916016 -80 37.79876708984375 -5.92488241195678711
-26.3157901763916016 -80 43.3118019104003906 -5.92488241195678711
-26.3157901763916016 -80 47.2581825256347656 -5.92488241195678711
-26.3157901763916016 -80 49.4951553344726562 -5.92488241195678711
-26.3157901763916016 -80 49.9418067932128906 -5.92488241195678711
-26.3157901763916016 -80 48.5819816589355469 -5.92488241195678711
-26.3157901763916016 -80 45.4648704528808594 -5.92488241195678711
-15.7894735336303711 -80 -45.4648704528808594 0.52108919620513916
-15.7894735336303711 -80 -48.5819816589355469 0.52108919620513916
-15.7894735336303711 -80 -49.9418067932128906 0.52108919620513916
-15.7894735336303711 -80 -49.4951553344726562 0.52108919620513916
-15.7894735336303711 -80 -47.2581825256347656 0.52108919620513916
-15.7894735336303711 -80 -43.3118019104003906 0.52108919620513916
-15.7894735336303711 -80 -37.79876708984375 0.52108919620513916
-15.7894735336303711 -80 -30.9184894561767578 0.52108919620513916
-15.7894735336303711 -80 -22.9198398590087891 0.52108919620513916
-15.7894735336303711 -80 -14.0921430587768555 0.52108919620513916
-15.7894735336303711 -80 -4.75470924377441406 0.52108919620513916
-15.7894735336303711 -80 4.75470924377441406 0.52108919620513916
-15.7894735336303711 -80 14.0921430587768555 0.52108919620513916
-15.7894735336303711 -80 22.9198398590087891 0.52108919620513916
-15.7894735336303711 -80 30.9184894561767578 0.52108919620513916
-15.7894735336303711 -80 37.79876708984375 0.52108919620513916
-15.7894735336303711 -80 43.3118019104003906 0.52108919620513916
-15.7894735336303711 -80 47.2581825256347656 0.52108919620513916
-15.7894735336303711 -80 49.4951553344726562 0.52108919620513916
-15.7894735336303711 -80 49.9418067932128906 0.52108919620513916
-15.7894735336303711 -80 48.5819816589355469 0.52108919620513916
-15.7894735336303711 -80 45.4648704528808594 0.52108919620513916
-5.26315784454345703 -80 -45.4648704528808594 5.4535832405090332
-5.26315784454345703 -80 -48.5819816589355469 5.4535832405090332
-5.26315784454345703 -80 -49.9418067932128906 5.4535832405090332
-5.26315784454345703 -80 -49.4951553344726562 5.4535832405090332
-5.26315784454345703 -80 -47.2581825256347656 5.4535832405090332
-5.26315784454345703 -80 -43.3118019104003906 5.4535832405090332
-5.26315784454345703 -80 -37.79876708984375 5.4535832405090332
-5.26315784454345703 -80 -30.9184894561767578 5.4535832405090332
-5.26315784454345703 -80 -22.9198398590087891 5.4535832405090332
-5.26315784454345703 -80 -14.0921430587768555 5.4535832405090332
-5.26315784454345703 -80 -4.75470924377441406 5.4535832405090332
-5.26315784454345703 -80 4.75470924377441406 5.4535832405090332
-5.26315784454345703 -80 14.0921430587768555 5.4535832405090332
-5.26315784454345703 -80 22.9198398590087891 5.4535832405090332
-5.26315784454345703 -80 30.9184894561767578 5.4535832405090332
-5.26315784454345703 -80 37.79876708984375 5.4535832405090332
-5.26315784454345703 -80 43.3118019104003906 5.4535832405090332
-5.26315784454345703 -80 47.2581825256347656 5.4535832405090332
-5.26315784454345703 -80 49.4951553344726562 5.4535832405090332
-5.26315784454345703 -80 49.9418067932128906 5.4535832405090332
-5.26315784454345703 -80 48.5819816589355469 5.4535832405090332
-5.26315784454345703 -80 45.4648704528808594 5.4535832405090332
5.26315784454345703 -80 -45.4648704528808594 -5.4535832405090332
5.26315784454345703 -80 -48.5819816589355469 -5.4535832405090332
5.26315784454345703 -80 -49.9418067932128906 -5.4535832405090332
5.26315784454345703 -80 -49.4951553344726562 -5.4535832405090332
5.26315784454345703 -80 -47.2581825256347656 -5.4535832405090332
5.26315784454345703 -80 -43.3118019104003906 -5.4535832405090332
5.26315784454345703 -80 -37.79876708984375 -5.4535832405090332
5.26315784454345703 -80 -30.9184894561767578 -5.4535832405090332
5.26315784454345703 -80 -22.9198398590087891 -5.4535832405090332
5.26315784454345703 -80 -14.0921430587768555 -5.4535832405090332
5.26315784454345703 -80 -4.75470924377441406 -5.4535832405090332
5.26315784454345703 -80 4.75470924377441406 -5.4535832405090332
5.26315784454345703 -80 14.0921430587768555 -5.4535832405090332
5.26315784454345703 -80 22.9198398590087891 -5.4535832405090332
5.26315784454345703 -80 30.9184894561767578 -5.4535832405090332
5.26315784454345703 -80 37.79876708984375 -5.4535832405090332
5.26315784454345703 -80 43.3118019104003906 -5.4535832405090332
5.26315784454345703 -80 47.2581825256347656 -5.4535832405090332
5.26315784454345703 -80 49.4951553344726562 -5.4535832405090332
5.26315784454345703 -80 49.9418067932128906 -5.4535832405090332
5.26315784454345703 -80 48.5819816589355469 -5.4535832405090332
5.26315784454345703 -80 45.4648704528808594 -5.4535832405090332
15.7894735336303711 -80 -45.4648704528808594 -0.52108919620513916
15.7894735336303711 -80 -48.5819816589355469 -0.52108919620513916
15.7894735336303711 -80 -49.9418067932128906 -0.52108919620513916
15.7894735336303711 -80 -49.4951553344726562 -0.52108919620513916
15.7894735336303711 -80 -47.2581825256347656 -0.52108919620513916
15.7894735336303711 -80 -43.3118019104003906 -0.52108919620513916
15.7894735336303711 -80 -37.79876708984375 -0.52108919620513916
15.7894735336303711 -80 -30.9184894561767578 -0.52108919620513916
15.7894735336303711 -80 -22.9198398590087891 -0.52108919620513916
15.7894735336303711 -80 -14.0921430587768555 -0.52108919620513916
15.7894735336303711 -80 -4.75470924377441406 -0.52108919620513916
15.7894735336303711 -80 4.75470924377441406 -0.52108919620513916
15.7894735336303711 -80 14.0921430587768555 -0.52108919620513916
15.7894735336303711 -80 22.9198398590087891 -0.52108919620513916
15.7894735336303711 -80 30.9184894561767578 -0.52108919620513916
15.7894735336303711 -80 37.79876708984375 -0.52108919620513916
15.7894735336303711 -80 43.3118019104003906 -0.52108919620513916
15.7894735336303711 -80 47.2581825256347656 -0.52108919620513916
15.7894735336303711 -80 49.4951553344726562 -0.52108919620513916
15.7894735336303711 -80 49.9418067932128906 -0.52108919620513916
15.7894735336303711 -80 48.5819816589355469 -0.52108919620513916
15.7894735336303711 -80 45.4648704528808594 -0.52108919620513916
26.3157901763916016 -80 -45.4648704528808594 5.92488241195678711
26.3157901763916016 -80 -48.5819816589355469 5.92488241195678711
26.3157901763916016 -80 -49.9418067932128906 5.92488241195678711
26.3157901763916016 -80 -49.4951553344726562 5.92488241195678711
26.3157901763916016 -80 -47.2581825256347656 5.92488241195678711
26.3157901763916016 -80 -43.3118019104003906 5.92488241195678711
26.3157901763916016 -80 -37.79876708984375 5.92488241195678711
26.3157901763916016 -80 -30.9184894561767578 5.92488241195678711
26.3157901763916016 -80 -22.9198398590087891 5.92488241195678711
26.3157901763916016 -80 -14.0921430587768555 5.92488241195678711
26.3157901763916016 -80 -4.75470924377441406 5.92488241195678711
26.3157901763916016 -80 4.75470924377441406 5.92488241195678711
26.3157901763916016 -80 14.0921430587768555 5.92488241195678711
26.3157901763916016 -80 22.9198398590087891 5.92488241195678711
26.3157901763916016 -80 30.9184894561767578 5.92488241195678711
26.3157901763916016 -80 37.79876708984375 5.92488241195678711
26.3157901763916016 -80 43.3118019104003906 5.92488241195678711
26.3157901763916016 -80 47.2581825256347656 5.92488241195678711
26.3157901763916016 -80 49.4951553344726562 5.92488241195678711
26.3157901763916016 -80 49.9418067932128906 5.92488241195678711
26.3157901763916016 -80 48.5819816589355469 5.92488241195678711
26.3157901763916016 -80 45.4648704528808594 5.92488241195678711
36.8421058654785156 -80 -45.4648704528808594 -4.83767127990722656
36.8421058654785156 -80 -48.5819816589355469 -4.83767127990722656
36.8421058654785156 -80 -49.9418067932128906 -4.83767127990722656
36.8421058654785156 -80 -49.4951553344726562 -4.83767127990722656
36.8421058654785156 -80 -47.2581825256347656 -4.83767127990722656
36.8421058654785156 -80 -43.3118019104003906 -4.83767127990722656
36.8421058654785156 -80 -37.79876708984375 -4.83767127990722656
36.8421058654785156 -80 -30.9184894561767578 -4.83767127990722656
36.8421058654785156 -80 -22.9198398590087891 -4.83767127990722656
36.8421058654785156 -80 -14.0921430587768555 -4.83767127990722656
36.8421058654785156 -80 -4.75470924377441406 -4.83767127990722656
36.8421058654785156 -80 4.75470924377441406 -4.83767127990722656
36.8421058654785156 -80 14.0921430587768555 -4.83767127990722656
36.8421058654785156 -80 22.9198398590087891 -4.83767127990722656
36.8421058654785156 -80 30.9184894561767578 -4.83767127990722656
36.8421058654785156 -80 37.79876708984375 -4.83767127990722656
36.8421058654785156 -80 43.3118019104003906 -4.83767127990722656
36.8421058654785156 -80 47.2581825256347656 -4.83767127990722656
36.8421058654785156 -80 49.4951553344726562 -4.83767127990722656
36.8421058654785156 -80 49.9418067932128906 -4.83767127990722656
36.8421058654785156 -80 48.5819816589355469 -4.83767127990722656
36.8421058654785156 -80 45.4648704528808594 -4.83767127990722656
47.3684196472167969 -80 -45.4648704528808594 -1.54944992065429688
47.3684196472167969 -80 -48.5819816589355469 -1.54944992065429688
47.3684196472167969 -80 -49.9418067932128906 -1.54944992065429688
47.3684196472167969 -80 -49.4951553344726562 -1.54944992065429688
47.3684196472167969 -80 -47.2581825256347656 -1.54944992065429688
47.3684196472167969 -80 -43.3118019104003906 -1.54944992065429688
47.3684196472167969 -80 -37.79876708984375 -1.54944992065429688
47.3684196472167969 -80 -30.9184894561767578 -1.54944992065429688
47.3684196472167969 -80 -22.9198398590087891 -1.54944992065429688
47.3684196472167969 -80 -14.0921430587768555 -1.54944992065429688
47.3684196472167969 -80 -4.75470924377441406 -1.54944992065429688
47.3684196472167969 -80 4.75470924377441406 -1.54944992065429688
47.3684196472167969 -80 14.0921430587768555 -1.54944992065429688
47.3684196472167969 -80 22.9198398590087891 -1.54944992065429688
47.3684196472167969 -80 30.9184894561767578 -1.54944992065429688
47.3684196472167969 -80 37.79876708984375 -1.54944992065429688
47.3684196472167969 -80 43.3118019104003906 -1.54944992065429688
47.3684196472167969 -80 47.2581825256347656 -1.54944992065429688
47.3684196472167969 -80 49.4951553344726562 -1.54944992065429688
47.3684196472167969 -80 49.9418067932128906 -1.54944992065429688
47.3684196472167969 -80 48.5819816589355469 -1.54944992065429688
47.3684196472167969 -80 45.4648704528808594 -1.54944992065429688
57.8947372436523438 -80 -45.4648704528808594 6.23907136917114258
57.8947372436523438 -80 -48.5819816589355469 6.23907136917114258
57.8947372436523438 -80 -49.9418067932128906 6.23907136917114258
57.8947372436523438 -80 -49.4951553344726562 6.23907136917114258
57.8947372436523438 -80 -47.2581825256347656 6.23907136917114258
57.8947372436523438 -80 -43.3118019104003906 6.23907136917114258
57.8947372436523438 -80 -37.79876708984375 6.23907136917114258
57.8947372436523438 -80 -30.9184894561767578 6.23907136917114258
57.8947372436523438 -80 -22.9198398590087891 6.23907136917114258
57.8947372436523438 -80 -14.0921430587768555 6.23907136917114258
57.8947372436523438 -80 -4.75470924377441406 6.23907136917114258
57.8947372436523438 -80 4.75470924377441406 6.23907136917114258
57.8947372436523438 -80 14.0921430587768555 6.23907136917114258
57.8947372436523438 -80 22.9198398590087891 6.23907136917114258
57.8947372436523438 -80 30.9184894561767578 6.23907136917114258
57.8947372436523438 -80 37.79876708984375 6.23907136917114258
57.8947372436523438 -80 43.3118019104003906 6.23907136917114258
57.8947372436523438 -80 47.2581825256347656 6.23907136917114258
57.8947372436523438 -80 49.4951553344726562 6.23907136917114258
57.8947372436523438 -80 49.9418067932128906 6.23907136917114258
57.8947372436523438 -80 48.5819816589355469 6.23907136917114258
57.8947372436523438 -80 45.4648704528808594 6.23907136917114258
68.421051025390625 -80 -45.4648704528808594 -4.09347915649414062
68.421051025390625 -80 -48.5819816589355469 -4.09347915649414062
68.421051025390625 -80 -49.9418067932128906 -4.09347915649414062
68.421051025390625 -80 -49.4951553344726562 -4.09347915649414062
68.421051025390625 -80 -47.2581825256347656 -4.09347915649414062
68.421051025390625 -80 -43.3118019104003906 -4.09347915649414062
68.421051025390625 -80 -37.79876708984375 -4.09347915649414062
68.421051025390625 -80 -30.9184894561767578 -4.09347915649414062
68.421051025390625 -80 -22.9198398590087891 -4.09347915649414062
68.421051025390625 -80 -14.0921430587768555 -4.09347915649414062
68.421051025390625 -80 -4.75470924377441406 -4.09347915649414062
68.421051025390625 -80 4.75470924377441406 -4.09347915649414062
68.421051025390625 -80 14.0921430587768555 -4.09347915649414062
68.421051025390625 -80 22.9198398590087891 -4.09347915649414062
68.421051025390625 -80 30.9184894561767578 -4.09347915649414062
68.421051025390625 -80 37.79876708984375 -4.09347915649414062
68.421051025390625 -80 43.3118019104003906 -4.09347915649414062
68.421051025390625 -80 47.2581825256347656 -4.09347915649414062
68.421051025390625 -80 49.4951553344726562 -4.09347915649414062
68.421051025390625 -80 49.9418067932128906 -4.09347915649414062
68.421051025390625 -80 48.5819816589355469 -4.09347915649414062
68.421051025390625 -80 45.4648704528808594 -4.09347915649414062
78.9473648071289062 -80 -45.4648704528808594 -2.53672385215759277
78.9473648071289062 -80 -48.5819816589355469 -2.53672385215759277
78.9473648071289062 -80 -49.9418067932128906 -2.53672385215759277
78.9473648071289062 -80 -49.4951553344726562 -2.53672385215759277
78.9473648071289062 -80 -47.2581825256347656 -2.53672385215759277
78.9473648071289062 -80 -43.3118019104003906 -2.53672385215759277
78.9473648071289062 -80 -37.79876708984375 -2.53672385215759277
78.9473648071289062 -80 -30.9184894561767578 -2.53672385215759277
78.9473648071289062 -80 -22.9198398590087891 -2.53672385215759277
78.9473648071289062 -80 -14.0921430587768555 -2.53672385215759277
78.9473648071289062 -80 -4.75470924377441406 -2.53672385215759277
78.9473648071289062 -80 4.75470924377441406 -2.53672385215759277
78.9473648071289062 -80 14.0921430587768555 -2.53672385215759277
78.9473648071289062 -80 22.9198398590087891 -2.53672385215759277
78.9473648071289062 -80 30.9184894561767578 -2.53672385215759277
78.9473648071289062 -80 37.79876708984375 -2.53672385215759277
78.9473648071289062 -80 43.3118019104003906 -2.53672385215759277
78.9473648071289062 -80 47.2581825256347656 -2.53672385215759277
78.9473648071289062 -80 49.4951553344726562 -2.53672385215759277
78.9473648071289062 -80 49.9418067932128906 -2.53672385215759277
78.9473648071289062 -80 48.5819816589355469 -2.53672385215759277
78.9473648071289062 -80 45.4648704528808594 -2.53672385215759277
89.4736862182617188 -80 -45.4648704528808594 6.38781929016113281
89.4736862182617188 -80 -48.5819816589355469 6.38781929016113281
89.4736862182617188 -80 -49.9418067932128906 6.38781929016113281
89.4736862182617188 -80 -49.4951553344726562 6.38781929016113281
89.4736862182617188 -80 -47.2581825256347656 6.38781929016113281
89.4736862182617188 -80 -43.3118019104003906 6.38781929016113281
89.4736862182617188 -80 -37.79876708984375 6.38781929016113281
89.4736862182617188 -80 -30.9184894561767578 6.38781929016113281
89.4736862182617188 -80 -22.9198398590087891 6.38781929016113281
89.4736862182617188 -80 -14.0921430587768555 6.38781929016113281
89.4736862182617188 -80 -4.75470924377441406 6.38781929016113281
89.4736862182617188 -80 4.75470924377441406 6.38781929016113281
89.4736862182617188 -80 14.0921430587768555 6.38781929016113281
89.4736862182617188 -80 22.9198398590087891 6.38781929016113281
89.4736862182617188 -80 30.9184894561767578 6.38781929016113281
89.4736862182617188 -80 37.79876708984375 6.38781929016113281
89.4736862182617188 -80 43.3118019104003906 6.38781929016113281
89.4736862182617188 -80 47.2581825256347656 6.38781929016113281
89.4736862182617188 -80 49.4951553344726562 6.38781929016113281
89.4736862182617188 -80 49.9418067932128906 6.38781929016113281
89.4736862182617188 -80 48.5819816589355469 6.38781929016113281
89.4736862182617188 -80 45.4648704528808594 6.38781929016113281
100 -80 -45.4648704528808594 -3.24074006080627441
100 -80 -48.5819816589355469 -3.24074006080627441
100 -80 -49.9418067932128906 -3.24074006080627441
100 -80 -49.4951553344726562 -3.24074006080627441
100 -80 -47.2581825256347656 -3.24074006080627441
100 -80 -43.3118019104003906 -3.24074006080627441
100 -80 -37.79876708984375 -3.24074006080627441
100 -80 -30.9184894561767578 -3.24074006080627441
100 -80 -22.9198398590087891 -3.24074006080627441
100 -80 -14.0921430587768555 -3.24074006080627441
100 -80 -4.75470924377441406 -3.24074006080627441
100 -80 4.75470924377441406 -3.24074006080627441
100 -80 14.0921430587768555 -3.24074006080627441
100 -80 22.9198398590087891 -3.24074006080627441
100 -80 30.9184894561767578 -3.24074006080627441
100 -80 37.79876708984375 -3.24074006080627441
100 -80 43.3118019104003906 -3.24074006080627441
100 -80 47.2581825256347656 -3.24074006080627441
100 -80 49.4951553344726562 -3.24074006080627441
100 -80 49.9418067932128906 -3.24074006080627441
100 -80 48.5819816589355469 -3.24074006080627441
100 -80 45.4648704528808594 -3.24074006080627441
-100 -70 -45.4648704528808594 2.48119163513183594
-100 -70 -48.5819816589355469 2.48119163513183594
-100 -70 -49.9418067932128906 2.48119163513183594
-100 -70 -49.4951553344726562 2.48119163513183594
-100 -70 -47.2581825256347656 2.48119163513183594
-100 -70 -43.3118019104003906 2.48119163513183594
-100 -70 -37.79876708984375 2.48119163513183594
-100 -70 -30.9184894561767578 2.48119163513183594
-100 -70 -22.9198398590087891 2.48119163513183594
-100 -70 -14.0921430587768555 2.48119163513183594
-100 -70 -4.75470924377441406 2.48119163513183594
-100 -70 4.75470924377441406 2.48119163513183594
-100 -70 14.0921430587768555 2.48119163513183594
-100 -70 22.9198398590087891 2.48119163513183594
-100 -70 30.9184894561767578 2.48119163513183594
-100 -70 37.79876708984375 2.48119163513183594
-100 -70 43.3118019104003906 2.48119163513183594
-100 -70 47.2581825256347656 2.48119163513183594
-100 -70 49.4951553344726562 2.48119163513183594
-100 -70 49.9418067932128906 2.48119163513183594
-100 -70 48.5819816589355469 2.48119163513183594
-100 -70 45.4648704528808594 2.48119163513183594
-89.4736862182617188 -70 -45.4648704528808594 -4.89067411422729492
-89.4736862182617188 -70 -48.5819816589355469 -4.89067411422729492
-89.4736862182617188 -70 -49.9418067932128906 -4.89067411422729492
-89.4736862182617188 -70 -49.4951553344726562 -4.89067411422729492
-89.4736862182617188 -70 -47.2581825256347656 -4.89067411422729492
-89.4736862182617188 -70 -43.3118019104003906 -4.89067411422729492
-89.4736862182617188 -70 -37.79876708984375 -4.89067411422729492
-89.4736862182617188 -70 -30.9184894561767578 -4.89067411422729492
-89.4736862182617188 -70 -22.9198398590087891 -4.89067411422729492
-89.4736862182617188 -70 -14.0921430587768555 -4.89067411422729492
-89.4736862182617188 -70 -4.75470924377441406 -4.89067411422729492
-89.4736862182617188 -70 4.75470924377441406 -4.89067411422729492
-89.4736862182617188 -70 14.0921430587768555 -4.89067411422729492
-89.4736862182617188 -70 22.9198398590087891 -4.89067411422729492
-89.4736862182617188 -70 30.9184894561767578 -4.89067411422729492
-89.4736862182617188 -70 37.79876708984375 -4.89067411422729492
-89.4736862182617188 -70 43.3118019104003906 -4.89067411422729492
-89.4736862182617188 -70 47.2581825256347656 -4.89067411422729492
-89.4736862182617188 -70 49.4951553344726562 -4.89067411422729492
-89.4736862182617188 -70 49.9418067932128906 -4.89067411422729492
-89.4736862182617188 -70 48.5819816589355469 -4.89067411422729492
-89.4736862182617188 -70 45.4648704528808594 -4.89067411422729492
-78.9473648071289062 -70 -45.4648704528808594 1.94217920303344727
-78.9473648071289062 -70 -48.5819816589355469 1.94217920303344727
-78.9473648071289062 -70 -49.9418067932128906 1.94217920303344727
-78.9473648071289062 -70 -49.4951553344726562 1.94217920303344727
-78.9473648071289062 -70 -47.2581825256347656 1.94217920303344727
-78.9473648071289062 -70 -43.3118019104003906 1.94217920303344727
-78.9473648071289062 -70 -37.79876708984375 1.94217920303344727
-78.9473648071289062 -70 -30.9184894561767578 1.94217920303344727
-78.9473648071289062 -70 -22.9198398590087891 1.94217920303344727
-78.9473648071289062 -70 -14.0921430587768555 1.94217920303344727
-78.9473648071289062 -70 -4.75470924377441406 1.94217920303344727
-78.9473648071289062 -70 4.75470924377441406 1.94217920303344727
-78.9473648071289062 -70 14.0921430587768555 1.94217920303344727
-78.9473648071289062 -70 22.9198398590087891 1.94217920303344727
-78.9473648071289062 -70 30.9184894561767578 1.94217920303344727
-78.9473648071289062 -70 37.79876708984375 1.94217920303344727
-78.9473648071289062 -70 43.3118019104003906 1.94217920303344727
-78.9473648071289062 -70 47.2581825256347656 1.94217920303344727
-78.9473648071289062 -70 49.4951553344726562 1.94217920303344727
-78.9473648071289062 -70 49.9418067932128906 1.94217920303344727
-78.9473648071289062 -70 48.5819816589355469 1.94217920303344727
-78.9473648071289062 -70 45.4648704528808594 1.94217920303344727
-68.421051025390625 -70 -45.4648704528808594 3.13406991958618164
-68.421051025390625 -70 -48.5819816589355469 3.13406991958618164
-68.421051025390625 -70 -49.9418067932128906 3.13406991958618164
-68.421051025390625 -70 -49.4951553344726562 3.13406991958618164
-68.421051025390625 -70 -47.2581825256347656 3.13406991958618164
-68.421051025390625 -70 -43.3118019104003906 3.13406991958618164
-68.421051025390625 -70 -37.79876708984375 3.13406991958618164
-68.421051025390625 -70 -30.9184894561767578 3.13406991958618164
-68.421051025390625 -70 -22.9198398590087891 3.13406991958618164
-68.421051025390625 -70 -14.0921430587768555 3.13406991958618164
-68.421051025390625 -70 -4.75470924377441406 3.13406991958618164
-68.421051025390625 -70 4.75470924377441406 3.13406991958618164
-68.421051025390625 -70 14.0921430587768555 3.13406991958618164
-68.421051025390625 -70 22.9198398590087891 3.13406991958618164
-68.421051025390625 -70 30.9184894561767578 3.13406991958618164
-68.421051025390625 -70 37.79876708984375 3.13406991958618164
-68.421051025390625 -70 43.3118019104003906 3.13406991958618164
-68.421051025390625 -70 47.2581825256347656 3.13406991958618164
-68.421051025390625 -70 49.4951553344726562 3.13406991958618164
-68.421051025390625 -70 49.9418067932128906 3.13406991958618164
-68.421051025390625 -70 48.5819816589355469 3.13406991958618164
-68.421051025390625 -70 45.4648704528808594 3.13406991958618164
-57.8947372436523438 -70 -45.4648704528808594 -4.77678918838500977
-57.8947372436523438 -70 -48.5819816589355469 -4.77678918838500977
-57.8947372436523438 -70 -49.9418067932128906 -4.77678918838500977
-57.8947372436523438 -70 -49.4951553344726562 -4.77678918838500977
-57.8947372436523438 -70 -47.2581825256347656 -4.77678918838500977
-57.8947372436523438 -70 -43.3118019104003906 -4.77678918838500977
-57.8947372436523438 -70 -37.79876708984375 -4.77678918838500977
-57.8947372436523438 -70 -30.9184894561767578 -4.77678918838500977
-57.8947372436523438 -70 -22.9198398590087891 -4.77678918838500977
-57.8947372436523438 -70 -14.0921430587768555 -4.77678918838500977
-57.8947372436523438 -70 -4.75470924377441406 -4.77678918838500977
-57.8947372436523438 -70 4.75470924377441406 -4.77678918838500977
-57.8947372436523438 -70 14.0921430587768555 -4.77678918838500977
-57.8947372436523438 -70 22.9198398590087891 -4.77678918838500977
-57.8947372436523438 -70 30.9184894561767578 -4.77678918838500977
-57.8947372436523438 -70 37.79876708984375 -4.77678918838500977
-57.8947372436523438 -70 43.3118019104003906 -4.77678918838500977
-57.8947372436523438 -70 47.2581825256347656 -4.77678918838500977
-57.8947372436523438 -70 49.4951553344726562 -4.77678918838500977
-57.8947372436523438 -70 49.9418067932128906 -4.77678918838500977
-57.8947372436523438 -70 48.5819816589355469 -4.77678918838500977
-57.8947372436523438 -70 45.4648704528808594 -4.77678918838500977
-47.3684196472167969 -70 -45.4648704528808594 1.18629753589630127
-47.3684196472167969 -70 -48.5819816589355469 1.18629753589630127
-47.3684196472167969 -70 -49.9418067932128906 1.18629753589630127
-47.3684196472167969 -70 -49.4951553344726562 1.18629753589630127
-47.3684196472167969 -70 -47.2581825256347656 1.18629753589630127
-47.3684196472167969 -70 -43.3118019104003906 1.18629753589630127
-47.3684196472167969 -70 -37.79876708984375 1.18629753589630127
-47.3684196472167969 -70 -30.9184894561767578 1.18629753589630127
-47.3684196472167969 -70 -22.9198398590087891 1.18629753589630127
-47.3684196472167969 -70 -14.0921430587768555 1.18629753589630127
-47.3684196472167969 -70 -4.75470924377441406 1.18629753589630127
-47.3684196472167969 -70 4.75470924377441406 1.18629753589630127
-47.3684196472167969 -70 14.0921430587768555 1.18629753589630127
-47.3684196472167969 -70 22.9198398590087891 1.18629753589630127
-47.3684196472167969 -70 30.9184894561767578 1.18629753589630127
-47.3684196472167969 -70 37.79876708984375 1.18629753589630127
-47.3684196472167969 -70 43.3118019104003906 1.18629753589630127
-47.3684196472167969 -70 47.2581825256347656 1.18629753589630127
-47.3684196472167969 -70 49.4951553344726562 1.18629753589630127
-47.3684196472167969 -70 49.9418067932128906 1.18629753589630127
-47.3684196472167969 -70 48.5819816589355469 1.18629753589630127
-47.3684196472167969 -70 45.4648704528808594 1.18629753589630127
-36.8421058654785156 -70 -45.4648704528808594 3.7038421630859375
-36.8421058654785156 -70 -48.5819816589355469 3.7038421630859375
-36.8421058654785156 -70 -49.9418067932128906 3.7038421630859375
-36.8421058654785156 -70 -49.4951553344726562 3.7038421630859375
-36.8421058654785156 -70 -47.2581825256347656 3.7038421630859375
-36.8421058654785156 -70 -43.3118019104003906 3.7038421630859375
-36.8421058654785156 -70 -37.79876708984375 3.7038421630859375
-36.8421058654785156 -70 -30.9184894561767578 3.7038421630859375
-36.8421058654785156 -70 -22.9198398590087891 3.7038421630859375
-36.8421058654785156 -70 -14.0921430587768555 3.7038421630859375
-36.8421058654785156 -70 -4.75470924377441406 3.7038421630859375
-36.8421058654785156 -70 4.75470924377441406 3.7038421630859375
-36.8421058654785156 -70 14.0921430587768555 3.7038421630859375
-36.8421058654785156 -70 22.9198398590087891 3.7038421630859375
-36.8421058654785156 -70 30.9184894561767578 3.7038421630859375
-36.8421058654785156 -70 37.79876708984375 3.7038421630859375
-36.8421058654785156 -70 43.3118019104003906 3.7038421630859375
-36.8421058654785156 -70 47.2581825256347656 3.7038421630859375
-36.8421058654785156 -70 49.4951553344726562 3.7038421630859375
-36.8421058654785156 -70 49.9418067932128906 3.7038421630859375
-36.8421058654785156 -70 48.5819816589355469 3.7038421630859375
-36.8421058654785156 -70 45.4648704528808594 3.7038421630859375
-26.3157901763916016 -70 -45.4648704528808594 -4.53623819351196289
-26.3157901763916016 -70 -48.5819816589355469 -4.53623819351196289
-26.3157901763916016 -70 -49.9418067932128906 -4.53623819351196289
-26.3157901763916016 -70 -49.4951553344726562 -4.53623819351196289
-26.3157901763916016 -70 -47.2581825256347656 -4.53623819351196289
-26.3157901763916016 -70 -43.3118019104003906 -4.53623819351196289
-26.3157901763916016 -70 -37.79876708984375 -4.53623819351196289
-26.3157901763916016 -70 -30.9184894561767578 -4.53623819351196289
-26.3157901763916016 -70 -22.9198398590087891 -4.53623819351196289
-26.3157901763916016 -70 -14.0921430587768555 -4.53623819351196289
-26.3157901763916016 -70 -4.75470924377441406 -4.53623819351196289
-26.3157901763916016 -70 4.75470924377441406 -4.53623819351196289
-26.3157901763916016 -70 14.0921430587768555 -4.53623819351196289
-26.3157901763916016 -70 22.9198398590087891 -4.53623819351196289
-26.3157901763916016 -70 30.9184894561767578 -4.53623819351196289
-26.3157901763916016 -70 37.79876708984375 -4.53623819351196289
-26.3157901763916016 -70 43.3118019104003906 -4.53623819351196289
-26.3157901763916016 -70 47.2581825256347656 -4.53623819351196289
-26.3157901763916016 -70 49.4951553344726562 -4.53623819351196289
-26.3157901763916016 -70 49.9418067932128906 -4.53623819351196289
-26.3157901763916016 -70 48.5819816589355469 -4.53623819351196289
-26.3157901763916016 -70 45.4648704528808594 -4.53623819351196289
-15.7894735336303711 -70 -45.4648704528808594 0.398958921432495117
-15.7894735336303711 -70 -48.5819816589355469 0.398958921432495117
-15.7894735336303711 -70 -49.9418067932128906 0.398958921432495117
-15.7894735336303711 -70 -49.4951553344726562 0.398958921432495117
-15.7894735336303711 -70 -47.2581825256347656 0.398958921432495117
-15.7894735336303711 -70 -43.3118019104003906 0.398958921432495117
-15.7894735336303711 -70 -37.79876708984375 0.398958921432495117
-15.7894735336303711 -70 -30.9184894561767578 0.398958921432495117
-15.7894735336303711 -70 -22.9198398590087891 0.398958921432495117
-15.7894735336303711 -70 -14.0921430587768555 0.398958921432495117
-15.7894735336303711 -70 -4.75470924377441406 0.398958921432495117
-15.7894735336303711 -70 4.75470924377441406 0.398958921432495117
-15.7894735336303711 -70 14.0921430587768555 0.398958921432495117
-15.7894735336303711 -70 22.9198398590087891 0.398958921432495117
-15.7894735336303711 -70 30.9184894561767578 0.398958921432495117
-15.7894735336303711 -70 37.79876708984375 0.398958921432495117
-15.7894735336303711 -70 43.3118019104003906 0.398958921432495117
-15.7894735336303711 -70 47.2581825256347656 0.398958921432495117
-15.7894735336303711 -70 49.4951553344726562 0.398958921432495117
-15.7894735336303711 -70 49.9418067932128906 0.398958921432495117
-15.7894735336303711 -70 48.5819816589355469 0.398958921432495117
-15.7894735336303711 -70 45.4648704528808594 0.398958921432495117
-5.26315784454345703 -70 -45.4648704528808594 4.1753997802734375
-5.26315784454345703 -70 -48.5819816589355469 4.1753997802734375
-5.26315784454345703 -70 -49.9418067932128906 4.1753997802734375
-5.26315784454345703 -70 -49.4951553344726562 4.1753997802734375
-5.26315784454345703 -70 -47.2581825256347656 4.1753997802734375
-5.26315784454345703 -70 -43.3118019104003906 4.1753997802734375
-5.26315784454345703 -70 -37.79876708984375 4.1753997802734375
-5.26315784454345703 -70 -30.9184894561767578 4.1753997802734375
-5.26315784454345703 -70 -22.9198398590087891 4.1753997802734375
-5.26315784454345703 -70 -14.0921430587768555 4.1753997802734375
-5.26315784454345703 -70 -4.75470924377441406 4.1753997802734375
-5.26315784454345703 -70 4.75470924377441406 4.1753997802734375
-5.26315784454345703 -70 14.0921430587768555 4.1753997802734375
-5.26315784454345703 -70 22.9198398590087891 4.1753997802734375
-5.26315784454345703 -70 30.9184894561767578 4.1753997802734375
-5.26315784454345703 -70 37.79876708984375 4.1753997802734375
-5.26315784454345703 -70 43.3118019104003906 4.1753997802734375
-5.26315784454345703 -70 47.2581825256347656 4.1753997802734375
-5.26315784454345703 -70 49.4951553344726562 4.1753997802734375
-5.26315784454345703 -70 49.9418067932128906 4.1753997802734375
-5.26315784454345703 -70 48.5819816589355469 4.1753997802734375
-5.26315784454345703 -70 45.4648704528808594 4.1753997802734375
5.26315784454345703 -70 -45.4648704528808594 -4.1753997802734375
5.26315784454345703 -70 -48.5819816589355469 -4.1753997802734375
5.26315784454345703 -70 -49.9418067932128906 -4.1753997802734375
5.26315784454345703 -70 -49.4951553344726562 -4.1753997802734375
5.26315784454345703 -70 -47.2581825256347656 -4.1753997802734375
5.26315784454345703 -70 -43.3118019104003906 -4.1753997802734375
5.26315784454345703 -70 -37.79876708984375 -4.1753997802734375
5.26315784454345703 -70 -30.9184894561767578 -4.1753997802734375
5.26315784454345703 -70 -22.9198398590087891 -4.1753997802734375
5.26315784454345703 -70 -14.0921430587768555 -4.1753997802734375
5.26315784454345703 -70 -4.75470924377441406 -4.1753997802734375
5.26315784454345703 -70 4.75470924377441406 -4.1753997802734375
5.26315784454345703 -70 14.0921430587768555 -4.1753997802734375
5.26315784454345703 -70 22.9198398590087891 -4.1753997802734375
5.26315784454345703 -70 30.9184894561767578 -4.1753997802734375
5.26315784454345703 -70 37.79876708984375 -4.1753997802734375
5.26315784454345703 -70 43.3118019104003906 -4.1753997802734375
5.26315784454345703 -70 47.2581825256347656 -4.1753997802734375
5.26315784454345703 -70 49.4951553344726562 -4.1753997802734375
5.26315784454345703 -70 49.9418067932128906 -4.1753997802734375
5.26315784454345703 -70 48.5819816589355469 -4.1753997802734375
5.26315784454345703 -70 45.4648704528808594 -4.1753997802734375
15.7894735336303711 -70 -45.4648704528808594 -0.398958921432495117
15.7894735336303711 -70 -48.5819816589355469 -0.398958921432495117
15.7894735336303711 -70 -49.9418067932128906 -0.398958921432495117
15.7894735336303711 -70 -49.4951553344726562 -0.398958921432495117
15.7894735336303711 -70 -47.2581825256347656 -0.398958921432495117
15.7894735336303711 -70 -43.3118019104003906 -0.398958921432495117
15.7894735336303711 -70 -37.79876708984375 -0.398958921432495117
15.7894735336303711 -70 -30.9184894561767578 -0.398958921432495117
15.7894735336303711 -70 -22.9198398590087891 -0.398958921432495117
15.7894735336303711 -70 -14.0921430587768555 -0.398958921432495117
15.7894735336303711 -70 -4.75470924377441406 -0.398958921432495117
15.7894735336303711 -70 4.75470924377441406 -0.398958921432495117
15.7894735336303711 -70 14.0921430587768555 -0.398958921432495117
15.7894735336303711 -70 22.9198398590087891 -0.398958921432495117
15.7894735336303711 -70 30.9184894561767578 -0.398958921432495117
15.7894735336303711 -70 37.79876708984375 -0.398958921432495117
15.7894735336303711 -70 43.3118019104003906 -0.398958921432495117
15.7894735336303711 -70 47.2581825256347656 -0.398958921432495117
15.7894735336303711 -70 49.4951553344726562 -0.398958921432495117
15.7894735336303711 -70 49.9418067932128906 -0.398958921432495117
15.7894735336303711 -70 48.5819816589355469 -0.398958921432495117
15.7894735336303711 -70 45.4648704528808594 -0.398958921432495117
26.3157901763916016 -70 -45.4648704528808594 4.53623819351196289
26.3157901763916016 -70 -48.5819816589355469 4.53623819351196289
26.3157901763916016 -70 -49.9418067932128906 4.53623819351196289
26.3157901763916016 -70 -49.4951553344726562 4.53623819351196289
26.3157901763916016 -70 -47.2581825256347656 4.53623819351196289
26.3157901763916016 -70 -43.3118019104003906 4.53623819351196289
26.3157901763916016 -70 -37.79876708984375 4.53623819351196289
26.3157901763916016 -70 -30.9184894561767578 4.53623819351196289
26.3157901763916016 -70 -22.9198398590087891 4.53623819351196289
26.3157901763916016 -70 -14.0921430587768555 4.53623819351196289
26.3157901763916016 -70 -4.75470924377441406 4.53623819351196289
26.3157901763916016 -70 4.75470924377441406 4.53623819351196289
26.3157901763916016 -70 14.0921430587768555 4.53623819351196289
26.3157901763916016 -70 22.9198398590087891 4.53623819351196289
26.3157901763916016 -70 30.9184894561767578 4.53623819351196289
26.3157901763916016 -70 37.79876708984375 4.53623819351196289
26.3157901763916016 -70 43.3118019104003906 4.53623819351196289
26.3157901763916016 -70 47.2581825256347656 4.53623819351196289
26.3157901763916016 -70 49.4951553344726562 4.53623819351196289
26.3157901763916016 -70 49.9418067932128906 4.53623819351196289
26.3157901763916016 -70 48.5819816589355469 4.53623819351196289
26.3157901763916016 -70 45.4648704528808594 4.53623819351196289
36.8421058654785156 -70 -45.4648704528808594 -3.7038421630859375
36.8421058654785156 -70 -48.5819816589355469 -3.7038421630859375
36.8421058654785156 -70 -49.9418067932128906 -3.7038421630859375
36.8421058654785156 -70 -49.4951553344726562 -3.7038421630859375
36.8421058654785156 -70 -47.2581825256347656 -3.7038421630859375
36.8421058654785156 -70 -43.3118019104003906 -3.7038421630859375
36.8421058654785156 -70 -37.79876708984375 -3.7038421630859375
36.8421058654785156 -70 -30.9184894561767578 -3.7038421630859375
36.8421058654785156 -70 -22.9198398590087891 -3.7038421630859375
36.8421058654785156 -70 -14.0921430587768555 -3.7038421630859375
36.8421058654785156 -70 -4.75470924377441406 -3.7038421630859375
36.8421058654785156 -70 4.75470924377441406 -3.7038421630859375
36.8421058654785156 -70 14.0921430587768555 -3.7038421630859375
36.8421058654785156 -70 22.9198398590087891 -3.7038421630859375
36.8421058654785156 -70 30.9184894561767578 -3.7038421630859375
36.8421058654785156 -70 37.79876708984375 -3.7038421630859375
36.8421058654785156 -70 43.3118019104003906 -3.7038421630859375
36.8421058654785156 -70 47.2581825256347656 -3.7038421630859375
36.8421058654785156 -70 49.4951553344726562 -3.7038421630859375
36.8421058654785156 -70 49.9418067932128906 -3.7038421630859375
36.8421058654785156 -70 48.5819816589355469 -3.7038421630859375
36.8421058654785156 -70 45.4648704528808594 -3.7038421630859375
47.3684196472167969 -70 -45.4648704528808594 -1.18629753589630127
47.3684196472167969 -70 -48.5819816589355469 -1.18629753589630127
47.3684196472167969 -70 -49.9418067932128906 -1.18629753589630127
47.3684196472167969 -70 -49.4951553344726562 -1.18629753589630127
47.3684196472167969 -70 -47.2581825256347656 -1.18629753589630127
47.3684196472167969 -70 -43.3118019104003906 -1.18629753589630127
47.3684196472167969 -70 -37.79876708984375 -1.18629753589630127
47.3684196472167969 -70 -30.9184894561767578 -1.18629753589630127
47.3684196472167969 -70 -22.9198398590087891 -1.18629753589630127
47.3684196472167969 -70 -14.0921430587768555 -1.18629753589630127
47.3684196472167969 -70 -4.75470924377441406 -1.18629753589630127
47.3684196472167969 -70 4.75470924377441406 -1.18629753589630127
47.3684196472167969 -70 14.0921430587768555 -1.18629753589630127
47.3684196472167969 -70 22.9198398590087891 -1.18629753589630127
47.3684196472167969 -70 30.9184894561767578 -1.18629753589630127
47.3684196472167969 -70 37.79876708984375 -1.18629753589630127
47.3684196472167969 -70 43.3118019104003906 -1.18629753589630127
47.3684196472167969 -70 47.2581825256347656 -1.18629753589630127
47.3684196472167969 -70 49.4951553344726562 -1.18629753589630127
47.3684196472167969 -70 49.9418067932128906 -1.18629753589630127
47.3684196472167969 -70 48.5819816589355469 -1.18629753589630127
47.3684196472167969 -70 45.4648704528808594 -1.18629753589630127
57.8947372436523438 -70 -45.4648704528808594 4.77678918838500977
57.8947372436523438 -70 -48.5819816589355469 4.77678918838500977
57.8947372436523438 -70 -49.9418067932128906 4.77678918838500977
57.8947372436523438 -70 -49.4951553344726562 4.77678918838500977
57.8947372436523438 -70 -47.2581825256347656 4.77678918838500977
57.8947372436523438 -70 -43.3118019104003906 4.77678918838500977
57.8947372436523438 -70 -37.79876708984375 4.77678918838500977
57.8947372436523438 -70 -30.9184894561767578 4.77678918838500977
57.8947372436523438 -70 -22.9198398590087891 4.77678918838500977
57.8947372436523438 -70 -14.0921430587768555 4.77678918838500977
57.8947372436523438 -70 -4.75470924377441406 4.77678918838500977
57.8947372436523438 -70 4.75470924377441406 4.77678918838500977
57.8947372436523438 -70 14.0921430587768555 4.77678918838500977
57.8947372436523438 -70 22.9198398590087891 4.77678918838500977
57.8947372436523438 -70 30.9184894561767578 4.77678918838500977
57.8947372436523438 -70 37.79876708984375 4.77678918838500977
57.8947372436523438 -70 43.3118019104003906 4.77678918838500977
57.8947372436523438 -70 47.2581825256347656 4.77678918838500977
57.8947372436523438 -70 49.4951553344726562 4.77678918838500977
57.8947372436523438 -70 49.9418067932128906 4.77678918838500977
57.8947372436523438 -70 48.5819816589355469 4.77678918838500977
57.8947372436523438 -70 45.4648704528808594 4.77678918838500977
68.421051025390625 -70 -45.4648704528808594 -3.13406991958618164
